1.096247281668237150e+01 5.384562869693415621e+01 4.392884908068066352e+01
2.308327447535040733e+01 4.601233431475909441e+01 7.109043364538133858e+01
4.086068257247725377e+00 2.640238076044695958e+01 5.425905507604247902e+01
3.091327631414328891e+01 2.607445559469364937e+01 3.872711676385712565e+01
2.412220466509050354e+01 1.384869403646566433e+01 6.683372056992010357e+01
3.357367380273348090e+01 2.948892652085351429e+01 7.562974948043476786e+01
6.260259119867503586e+01 2.099332021504744006e+01 7.907055321742097931e+01
4.939400701602225041e+01 3.939017193063818922e+01 9.418120691101628950e+01
1.934219745908715637e+01 5.958216864858574269e+01 1.000000000000000000e+02
3.019368993712115312e+01 5.810874322209850362e+01 7.369235303253518055e+01
4.236174948348602243e+01 8.567749848875989471e+01 7.134993182988067417e+01
4.073651088989455360e+01 8.921343587456486546e+01 7.458248641720308569e+01
4.718054777709178182e+01 8.886226596551126988e+01 8.255842867047853417e+01
3.131217385699186551e+01 7.971993778875413739e+01 6.231086012576567157e+01
2.990145219187726511e+01 9.179453298011398488e+01 5.543109179241230322e+01
1.778894535803675581e+01 6.153314213165012347e+01 6.478923531722335838e+01
2.268473903493606514e+01 8.499988588824683688e+01 4.205755368111856285e+01
2.735817217586705752e+01 5.575722622489077196e+01 2.508548564015112348e+01
1.592721992912431617e+01 4.895358064472627291e+01 1.867903748201952396e+01
1.726424927694135647e+01 4.963787972009539118e+01 3.660272971197301928e+01
1.852494213387277711e+01 4.022534006552676544e+01 2.292292461115803803e+01
2.551276930215703942e+01 3.217468050481812725e+01 4.460389196529700229e+01
2.912704575732178114e+01 2.354508848263304444e+01 6.555717505742433104e+01
1.841189244779095446e+01 5.497880223810125244e+01 9.447494868774904830e+01
4.413223652970405908e+01 2.112067582153276390e+01 6.947913548586529942e+01
3.815553786488558785e+01 2.245541454652866875e+01 7.959760744287312662e+01
3.263367712627521655e+01 2.885804862468708976e+01 8.581875071460947879e+01
5.555987194692180964e+01 5.979037855423519687e+01 9.699307756378735235e+01
4.580700572001488524e+01 4.026658791561621342e+01 8.411372163106875632e+01
5.101653604916893414e+01 6.767225537362085674e+01 8.087025711279173379e+01
6.186946611856032519e+01 8.551073035268591127e+01 8.037214185758152496e+01
4.554740597728598317e+01 8.385353028402235509e+01 7.290122405625331226e+01
3.223882175497641356e+01 8.690040956995454735e+01 6.841895904593307876e+01
1.721386778155488173e+01 7.129809133518298836e+01 5.552766861806187393e+01
2.473461028790859473e+01 7.249251117903133945e+01 4.421666531985786008e+01
2.670166166869896074e+01 6.987370981924733826e+01 2.911072672786810500e+01
2.922228550589620966e+01 4.354686239086854727e+01 2.718658076972788962e+01
1.434210806002568006e+01 7.355796473699065530e+01 1.763117695774443661e+01
2.105397949869356466e+01 3.348963804425381596e+01 2.671399780777330335e+01
4.819238540630099976e+01 3.565183395296585900e+01 4.444657345476643684e+01
4.887681165156507035e+01 1.721539905255832892e+01 2.758836091716066719e+01
3.571830637064717706e+01 1.422617105026936990e+01 2.853128354263517252e+01
3.696718422827322570e+01 1.699362678469072563e+01 5.580735053278840496e+01
5.595194422066470707e+01 1.550213883969226458e+01 6.577663260633214293e+01
6.225949909484649680e+01 2.905609644054416307e+01 7.520833621379313172e+01
4.515277911833751290e+01 2.787880769429447625e+01 8.511603073677548537e+01
6.445114271768198932e+01 3.492557741330036691e+01 8.578146881909754029e+01
6.190690457271249159e+01 5.257573553861569593e+01 8.026279822393368590e+01
7.158213289116262956e+01 6.381565052779082947e+01 8.300170890259961709e+01
5.019343837586616530e+01 7.691628901932824647e+01 6.078928530313469025e+01
6.646002158054950826e+01 8.837763684157657451e+01 6.692905776348493418e+01
3.903095236849478766e+01 9.808006196611779615e+01 5.157677459573521617e+01
2.605360084097778639e+01 8.807394334920178380e+01 4.677159779521925742e+01
5.400024539371064947e+01 8.077260352897916107e+01 2.782945564683313577e+01
6.344050676033174341e+01 8.078208528563455104e+01 1.930090172898503909e+01
5.254412980069542272e+01 6.717013908066157057e+01 2.150611892718761098e+01
6.263067409657958962e+01 4.759916271407854538e+01 2.532040958229677230e+01
3.250330363850155635e+01 3.115511869854239890e+01 1.345984924028659258e+01
3.600024467904049175e+01 4.728112007367857217e+01 3.399971916140138717e+01
4.340909199087892034e+01 2.524292218783575237e+01 3.375085301260376980e+01
6.303100073851617680e+01 9.400430946400925691e+00 4.733085380401444553e+01
2.844682809681495073e+01 2.321139169488762022e+01 3.934649326389315860e+01
4.624776195843831772e+01 7.547455005091425306e+00 5.781154852878243133e+01
7.060742459269266647e+01 2.068133395627482329e+01 6.885942153237800767e+01
6.127134999765620194e+01 5.859242085922983279e+01 9.611114660776708263e+01
7.971623120130385587e+01 5.702827727862381124e+01 8.111247404233388636e+01
8.489643382806485761e+01 4.163446348328008639e+01 8.934537238964672667e+01
6.914057061115653369e+01 6.451905219137985625e+01 8.265612281632778036e+01
6.727004918502260011e+01 6.590908805683879734e+01 6.868392884021190525e+01
7.424430818679999788e+01 8.700427845536628979e+01 5.783463103279834172e+01
7.185362293679244772e+01 9.489309424568936890e+01 3.527620072212810243e+01
7.257693213812684974e+01 8.416375577984545941e+01 1.758015504138420582e+01
3.536502863704398436e+01 8.768014954221141011e+01 3.416028508431409705e+01
5.815404089496872331e+01 6.576617539236860921e+01 1.586211762310323437e+01
7.022924324793832795e+01 5.804635736849426308e+01 0.000000000000000000e+00
9.139628919774368399e+01 4.457058852580347974e+01 1.670105072165946680e+01
5.709040870162137082e+01 4.256837890495292243e+01 2.265209400841124676e+01
6.025730934222667656e+01 2.742575502824416134e+01 3.037737104131369748e+01
5.579535182181285080e+01 2.363791712999371697e+01 3.130715866551960502e+01
5.834840474086930584e+01 1.156757063970902699e+01 3.282243679320225738e+01
6.449639634120642029e+01 1.681368693652348867e+01 4.869365891980309868e+01
9.307531928774047003e+01 4.211081150015650820e+01 5.953602009673971907e+01
7.931510390709232183e+01 3.585152716445352183e+01 6.150055268484167925e+01
8.681554413831489114e+01 4.227022297223270897e+01 7.797224832461520805e+01
6.682850978744596659e+01 6.466130125961818464e+01 4.452032099960288036e+01
8.257652027264663275e+01 4.433973016297788661e+01 9.020603351817037208e+01
9.152304721020229294e+01 5.277254451713044148e+01 7.645418590847367568e+01
8.813318926833099454e+01 6.634379248600863832e+01 5.353521537362556160e+01
9.236537468395086137e+01 6.248444683150226098e+01 5.010340125206186457e+01
8.014699753582114283e+01 6.434097753309480083e+01 2.613781096496800771e+01
9.148734728520646797e+01 9.547927948256888442e+01 3.207434545941800508e+01
6.654884008165123532e+01 7.189260375584059659e+01 8.354748988059673920e+00
4.576004608269352758e+01 6.667972082954712221e+01 9.332696200900389982e+00
4.392819724131269510e+01 7.812134728756983293e+01 9.383231264996020116e+00
7.379376188450352458e+01 3.537469547420545268e+01 5.864685235342218306e+00
7.726713127527072800e+01 2.909791624560989121e+01 6.077670153442015000e+00
7.385033233726554158e+01 3.784440223441963269e+01 1.859267987251394061e+01
7.703627388624732930e+01 3.093133421777476144e+01 9.471685134843793819e+00
7.330973952993548437e+01 1.453611036797819978e+01 3.572315550068306322e+01
6.343759603140589576e+01 1.834379531982134282e+01 4.737072993712128266e+01
