4.273869230353730231e+00 3.454360079269798689e+01 5.757848749021922430e+01
8.305616071507827769e+00 3.996453877606864324e+01 6.987973446271655575e+01
1.403408344021899090e+01 3.880968923519471758e+01 7.674829159696604108e+01
2.054289291280032970e+01 3.520898632833908692e+01 8.742703121081164852e+01
2.482842874975758463e+01 4.435168224110085333e+01 9.947622520488263831e+01
3.363039045486484468e+01 5.175129289037294456e+01 9.845086049714667809e+01
3.343192989153932615e+01 6.764198902849817330e+01 1.000000000000000000e+02
3.427686784494585481e+01 7.988132135544023527e+01 9.283183966528763165e+01
4.160964005983396419e+01 8.270829041447161956e+01 8.588608974022415055e+01
4.121707496528710379e+01 8.947146096376658875e+01 7.422650083937803345e+01
4.587610248800483959e+01 9.619837487603352599e+01 6.331853550609640280e+01
3.688032725596699635e+01 9.656222315888916796e+01 5.518942340140404923e+01
2.898894615551996168e+01 8.861797746570817935e+01 4.253346516558661250e+01
1.944000094224600872e+01 8.924409097764298338e+01 3.513210961780116293e+01
1.306819267103426796e+01 8.524760388021702795e+01 3.421875292731062501e+01
1.390607157117964476e+01 7.200827043991320409e+01 2.907398613022654388e+01
1.347397578524474326e+01 5.530802954858879872e+01 2.932245672322274288e+01
1.412143855315222218e+01 4.154609116072269615e+01 3.678157652506660469e+01
2.095576757677516255e+01 3.722208390945493761e+01 4.661973775298649514e+01
1.740937470867331527e+01 3.259488279676354239e+01 5.106102467453284532e+01
1.915089467269603318e+01 3.009770801681627361e+01 6.480525286207407021e+01
2.860477547977375323e+01 2.966154608262496239e+01 7.475609675873448623e+01
3.480305765607310065e+01 3.435339818981229598e+01 8.335683656999069058e+01
3.755236949188997642e+01 4.171340076270736574e+01 8.787512885965048781e+01
4.671621879701698532e+01 5.476350451770127847e+01 9.062056805704787621e+01
5.202793471754240784e+01 6.655326964228153486e+01 9.126879246858173644e+01
5.666949377766289331e+01 7.821415606494053918e+01 8.133408769206909028e+01
5.733878132240575809e+01 8.705799449733640927e+01 7.823700606495174270e+01
5.989468893072648115e+01 8.628074507245581515e+01 6.702175595772033034e+01
5.442774765356951860e+01 9.084675423327627186e+01 5.572724131489329835e+01
4.814996096945939996e+01 9.286885297477802226e+01 4.752738640710467166e+01
3.905148141411162754e+01 8.756838251897482905e+01 3.623351315714203480e+01
3.452000379449196288e+01 7.998467546651873761e+01 2.651605916627345394e+01
3.213685555774218017e+01 7.272030249190162010e+01 2.470328665756995790e+01
2.501991649053297451e+01 5.441797214849436415e+01 2.777653538922520582e+01
2.781397742078692659e+01 4.727117037386543785e+01 2.747803588625456328e+01
2.883597368978583830e+01 4.258125058396293383e+01 3.432138335814001096e+01
2.947477254657497170e+01 3.188375457153714265e+01 4.258594267480120976e+01
2.806650233026049079e+01 2.339539291534694954e+01 4.819966663714497912e+01
3.542956683963368647e+01 2.468036839622758194e+01 6.383032315911633958e+01
3.894401434300485931e+01 2.450616215085511485e+01 7.250954244218362987e+01
4.330661756093732606e+01 3.438721395301092798e+01 7.623839185973281474e+01
5.462927061449824606e+01 4.252983460662891702e+01 7.726477238769055589e+01
6.084342385415066445e+01 4.968778872444029560e+01 8.497118620611287554e+01
6.835398897800267548e+01 6.082647383096257698e+01 8.301549490787337504e+01
6.795642783117054364e+01 6.905096197752959597e+01 7.723016428314124937e+01
7.110230632945562945e+01 7.599251266625739731e+01 6.894811311685435840e+01
6.922458179988574045e+01 7.815520484414768987e+01 5.728089214393372686e+01
6.196063206542367396e+01 8.085369825200260152e+01 4.411558973599176880e+01
5.941142176011938147e+01 8.378362188729187210e+01 3.881228454870066003e+01
5.439111692918434926e+01 8.007710948788665917e+01 2.828857004058289348e+01
5.061902938682825237e+01 7.195573578756126665e+01 2.165339457424494540e+01
4.668061999648095650e+01 5.960449010660415325e+01 1.462475975782581550e+01
3.460385811797889488e+01 5.368544500355478988e+01 1.594453394051449457e+01
3.608460035462344706e+01 3.892887582525389689e+01 2.171707456412967829e+01
3.915754432283048203e+01 2.849848031374967761e+01 3.077830607980770594e+01
3.970882174149075183e+01 2.274200550374511209e+01 3.669438830537034590e+01
4.024066456200840491e+01 1.790348679218507044e+01 4.311222064688240607e+01
4.636147126396254947e+01 1.635191808125212631e+01 5.398214752420567208e+01
5.489918786398027351e+01 1.801203447922181056e+01 6.576446311052760052e+01
6.201929879768163545e+01 2.415430634423650957e+01 7.041379206092551613e+01
6.507327427853742563e+01 3.112712391020865965e+01 7.635585821210429458e+01
7.628817412186518254e+01 4.557115603219187250e+01 8.168658966340754546e+01
8.186562720858029252e+01 6.087631044809105418e+01 7.963114952224351839e+01
8.174455551827016109e+01 7.266025756695330529e+01 6.915978570387697744e+01
8.282326402215103656e+01 7.280105630926875904e+01 5.984883060586673764e+01
7.610804095891684540e+01 7.782517975388802256e+01 5.100272380145844409e+01
7.150401971720449978e+01 7.680483612219765632e+01 3.965967214594689949e+01
6.959657552353557719e+01 7.804641036619278793e+01 3.037559003240853528e+01
6.509320687864024535e+01 7.427487960435726677e+01 2.078150522997875527e+01
5.509609445945201855e+01 6.089212230169611217e+01 1.512231445480272107e+01
5.932237617514715566e+01 5.281282460884796137e+01 1.002821697401536305e+01
5.371022946990174773e+01 4.596824384079504000e+01 7.875569146132757048e+00
5.186879894251909917e+01 3.667243435919080952e+01 1.038805464475557194e+01
5.003458149241812691e+01 2.300748941860337737e+01 1.940246835216178667e+01
5.605018335635155324e+01 1.454117201249588831e+01 3.484251380128182518e+01
5.763105366522085404e+01 1.732188922590049884e+01 4.464334837221075247e+01
5.973843376330496824e+01 1.377146658114805255e+01 5.762346082860642582e+01
6.755125169012781328e+01 1.247517040615776729e+01 6.164757064726050118e+01
7.657723493912054380e+01 1.716173433060407305e+01 6.995417209466420161e+01
8.922193685036023680e+01 2.951890014249780947e+01 7.420077509158036833e+01
8.653967110540737906e+01 4.067025583035195524e+01 7.694452245772272647e+01
8.763598983954022970e+01 5.284921761936520568e+01 7.732928573987048537e+01
8.591360619686007283e+01 6.252250677080209584e+01 6.401221254085920975e+01
7.843026556569627417e+01 6.863259353524614426e+01 5.577110325688525450e+01
8.422614814592527921e+01 7.027728669575509457e+01 4.321213701001764917e+01
7.821789444358290666e+01 7.560252537091960789e+01 3.698060511166965370e+01
7.301108589189863096e+01 7.405101314924466749e+01 3.584155515083401156e+01
7.549678646605609345e+01 6.995409930274473709e+01 2.304695764477723330e+01
7.449652084815447495e+01 6.256917939500282699e+01 1.179007188497144476e+01
7.372737609620745047e+01 4.707965681105665112e+01 4.391529261971110820e+00
7.344985076667052226e+01 3.418761186408576691e+01 0.000000000000000000e+00
6.385946781981861875e+01 2.165095134085127526e+01 8.771512224300284544e+00
6.341335937419144386e+01 1.800275698423306281e+01 1.698268666109817460e+01
7.000786787935196287e+01 1.676299001761000440e+01 2.874041281193454722e+01
7.284050051922424984e+01 1.568228553023279304e+01 4.130254003177044098e+01
7.473174824648744163e+01 1.837186369793400686e+01 5.343202477130560624e+01
8.106974051893510591e+01 1.301855941160483887e+01 6.198161466040156142e+01
8.797952131829616462e+01 1.891293362451323645e+01 6.051545503694769934e+01
8.889688757075477099e+01 3.488468032736267332e+01 5.873055895034072904e+01
