9.953446330861423519e+01 3.921015040366510362e+01 3.726060051220115099e+01
8.900618345811970755e+01 3.296816076160155973e+01 2.897955327547106918e+01
9.200584583000795647e+01 2.389212348181449741e+01 7.652785095287789829e+00
8.204609242409695469e+01 5.202293613798210714e+01 1.114563043934581010e+01
7.184603822913005899e+01 5.620522298217021984e+01 1.955643897787947783e+00
6.405043484704216894e+01 7.191952928518213639e+01 1.145833989227543981e+01
7.208410560541628342e+01 7.076707773861809869e+01 1.036733151890642546e+01
5.785295336368473329e+01 8.606962413106337806e+01 1.255167546816779556e+01
6.984149347701308841e+01 8.823799767552644369e+01 4.214815365932746971e+01
6.365954921086835583e+01 1.000000000000000000e+02 3.774542949737777775e+01
5.925531872741086659e+01 9.822670976803134124e+01 4.304772849164074700e+01
5.857478850479724741e+01 9.144422207513221679e+01 6.873836710981740339e+01
6.406622557412173080e+01 9.128425284124556072e+01 7.346202876231244261e+01
7.471437490976919094e+01 7.161318329934503879e+01 9.190776016363825818e+01
9.761641042542268565e+01 6.064876527237377957e+01 8.603800602828069088e+01
9.019078703395962293e+01 5.055399184031136883e+01 8.635749091583059567e+01
8.480562470220196758e+01 3.720759126183564547e+01 7.286785826983764025e+01
8.195802469034717319e+01 3.678512938069656713e+01 5.855312694153575137e+01
7.748112221991645754e+01 2.262514829319242438e+01 5.261428360037694318e+01
9.179556029508843551e+01 3.384467264952727561e+01 3.879851271878526120e+01
9.671601665551965255e+01 3.680770275086280208e+01 2.541299989513528246e+01
8.032671393150189942e+01 3.594905820683306530e+01 1.734338973227927383e+01
7.922835676203212074e+01 3.938488549244193138e+01 1.360037926838002953e+01
7.020717693810065896e+01 4.596235192146031068e+01 8.354249293830003253e+00
6.144948227835806165e+01 6.191924941225386192e+01 1.122212302971454712e+01
5.946771619926586538e+01 7.650050493186158462e+01 1.208684505466287362e+01
4.820709756269935298e+01 7.895956112289870532e+01 2.875719677778283057e+01
5.150110624720332453e+01 9.107701558979067613e+01 3.231910422067959843e+01
6.350928377723526097e+01 9.304040096023270223e+01 4.306159926944970096e+01
4.985813992681509177e+01 9.445507424793510154e+01 5.141704185506772262e+01
5.308725108136560777e+01 9.220405873760473980e+01 7.091221983853880317e+01
5.849961395827077126e+01 8.092104044755529912e+01 8.680303311627712048e+01
7.114475001519970476e+01 6.632373967586963204e+01 8.173002091393341573e+01
6.847005088301169451e+01 5.757736805981600270e+01 8.311677478304615363e+01
7.494276867522252417e+01 4.828716421561613004e+01 7.756089171901676593e+01
6.668916857686127742e+01 2.786101937670007800e+01 6.774164508524867756e+01
7.248888138421520466e+01 2.036463192949095813e+01 5.785680904170978067e+01
7.836046070940575703e+01 1.427142194576075873e+01 4.862070729828182181e+01
6.546572405926349347e+01 2.018124159933489281e+01 4.102236775612563946e+01
6.469517088746353295e+01 1.059624047417248605e+01 3.484920655223464792e+01
6.120398487891954886e+01 2.332131418664073408e+01 1.941999485627736632e+01
6.141631540110260801e+01 3.395034384533418859e+01 1.792388120882557700e+01
6.148742522356793927e+01 4.250068979827845084e+01 1.434593638027996754e+01
4.486037277405338131e+01 5.459597667472573335e+01 7.420757577653180448e+00
4.453353234277145134e+01 5.684406807775261683e+01 1.218825061167319213e+01
3.712725559338198167e+01 7.601024724096798479e+01 2.259226306291417785e+01
3.152922126276732939e+01 7.921651604872849362e+01 4.039895212054389617e+01
3.588204137325183041e+01 8.808815320503163093e+01 4.348723771757541812e+01
2.726224807160211938e+01 8.461714705048288465e+01 5.561824498231364799e+01
3.384023025027668297e+01 7.558607192746353576e+01 7.267815795720149197e+01
4.934854049237402762e+01 5.656210308236073558e+01 8.686948930041175743e+01
4.716621389271719522e+01 5.545503260249414978e+01 8.778670952489133583e+01
4.761951474430739495e+01 4.658374884788502612e+01 9.766499025645789800e+01
5.809048170011779888e+01 4.117979556683662423e+01 8.549547338826883447e+01
5.619407007412061716e+01 2.644192899954931519e+01 7.731589342626521955e+01
6.686446120832985685e+01 1.649009060674978500e+01 7.199984138674831513e+01
6.315899251780376034e+01 4.346390879880106972e+00 5.736590387060845586e+01
5.363245812842163929e+01 3.134273390989436692e+00 4.798938349322715169e+01
4.182426485016527096e+01 3.417677345435571112e+00 3.675986408006874484e+01
4.040235597740190343e+01 1.799553547533353637e+01 1.849180193268253802e+01
4.305793087500071437e+01 3.381344227502759736e+01 7.977768606028516452e+00
3.712842581599197445e+01 4.021375064716802683e+01 1.421389621070606246e+01
2.392498675551894394e+01 4.110536197172775275e+01 1.547821076794257600e+01
1.202085545653741327e+01 5.925951936998360026e+01 2.985886335953606618e+01
1.623202601964244352e+01 6.313303887363442612e+01 2.340397190215718126e+01
2.726157385997164440e+01 7.572172421602749637e+01 3.454421636167382559e+01
1.320288052364287168e+01 7.632301763448272425e+01 5.409871555663731613e+01
1.502323104931977760e+01 8.244117563466271292e+01 6.723793049646756970e+01
2.548033116387587427e+01 7.432048413670476350e+01 7.852505356423790772e+01
3.248823450654796829e+01 6.111655427848184985e+01 8.257957711438572801e+01
3.757254234387119851e+01 4.453654059900998163e+01 9.024197115477721809e+01
3.969205831062200218e+01 4.292368455606128919e+01 9.121454824042533005e+01
4.093361692856019118e+01 3.399485001317502508e+01 9.085417705222695872e+01
4.507530008940604915e+01 1.888944571699518704e+01 7.973279557268870121e+01
4.225741406331544425e+01 1.242162412050560683e+01 7.219521531577875351e+01
3.620414175297061377e+01 2.071286869611416837e+00 5.807998098286312683e+01
3.361918413583018150e+01 1.398319226966029838e+01 4.055933889009066462e+01
2.411211829259979567e+01 1.487340407084855975e+01 4.013697429998997279e+01
1.901841189375481633e+01 3.085309766108110097e+01 1.769385644360200871e+01
1.874942676145762022e+01 4.025620299366861587e+01 1.336361675519502690e+01
1.746218997944029283e+01 3.145982922503181811e+01 1.243544738824579987e+01
1.753452696868691874e+01 5.567306069931185419e+01 2.296800500893656505e+01
1.231248311139466978e+01 5.904565045430008752e+01 1.938603979786436682e+01
3.750573814245377058e+00 6.615593944143314786e+01 3.224509061679594168e+01
1.950770355463965045e+00 7.043637056330757673e+01 5.115402669208766895e+01
1.871076533575529766e+01 7.079141059988229756e+01 6.115062910886982195e+01
2.621522978272833981e+00 6.438629985919246224e+01 6.556032557881296441e+01
7.537105583206558990e+00 5.621953705276039415e+01 7.854299572724792711e+01
2.441224120611041215e+01 4.668791886748814335e+01 8.385980118185388221e+01
3.118938938824298290e+01 3.842931807961821988e+01 9.362691674669950714e+01
3.346644729653717576e+01 2.367461092970072301e+01 8.654501315003193440e+01
3.239207637898275749e+01 1.063614835650001211e+01 9.271297072813145235e+01
2.787669566061136450e+01 6.123040683661214345e+00 7.148170532463583982e+01
3.099970988465365451e+01 6.381963205633351066e+00 6.967753791853459688e+01
2.281173255698761082e+01 1.071684372309199773e+00 4.720590360747854675e+01
2.271192461089307102e+01 5.468996106588191353e+00 4.154610076834757137e+01
2.061153554133542798e+01 1.841795054246704666e+01 3.969386840090334090e+01
1.142043345953774391e+01 1.535299916578388668e+01 3.400496539147511754e+01
0.000000000000000000e+00 2.400135249274611482e+01 1.944026099097383664e+01
3.137412054433949660e+00 3.357441424843147360e+01 1.386899058242534188e+01
